ply
format ascii 1.0
element vertex 1225
property float x
property float y
property float z
property uchar red
property uchar green
property uchar blue
end_header
-9.797101 4.115942 -17.808697 85 89 88
-9.464788 4.000000 -17.307043 86 91 92
-8.675324 3.688312 -15.958442 89 92 91
-8.352201 3.572327 -15.456604 94 99 96
-8.198758 3.527950 -15.264597 99 101 97
-8.024465 3.474006 -15.031194 97 96 91
-7.975535 3.474006 -15.031194 57 61 55
-7.926606 3.474006 -15.031194 24 36 34
-7.901841 3.484663 -15.077301 41 55 56
-7.876923 3.495385 -15.123693 89 94 100
-7.900621 3.527950 -15.264597 78 83 86
-7.900000 3.550000 -15.360001 80 87 91
-7.850000 3.550000 -15.360001 82 85 90
-7.800000 3.550000 -15.360001 89 92 95
-7.725857 3.538941 -15.312150 90 92 94
-7.628483 3.517028 -15.217338 94 99 99
-7.578948 3.517028 -15.217338 98 99 99
-7.529412 3.517028 -15.217338 100 100 97
-7.503106 3.527950 -15.264597 53 52 50
-7.500000 3.550000 -15.360001 0 1 0
-7.450000 3.550000 -15.360001 10 15 15
-7.470032 3.583596 -15.505363 6 14 13
-7.443038 3.594937 -15.554431 11 19 16
-7.392405 3.594937 -15.554431 19 26 22
-7.365079 3.606349 -15.603810 14 23 16
-7.408360 3.652733 -15.804502 28 37 30
-7.380645 3.664516 -15.855485 74 70 74
-7.329032 3.664516 -15.855485 13 17 28
-7.300971 3.676375 -15.906796 13 21 30
-7.225806 3.664516 -15.855485 7 19 29
-7.174193 3.664516 -15.855485 12 24 36
-7.122581 3.664516 -15.855485 37 53 48
-7.116883 3.688312 -15.958442 118 110 101
-7.111111 3.712418 -16.062746 91 85 75
-7.058824 3.712418 -16.062746 100 92 80
-7.029508 3.724590 -16.115410 108 94 89
-6.954248 3.712418 -16.062746 31 31 37
-6.924590 3.724590 -16.115410 6 18 27
-6.872131 3.724590 -16.115410 10 18 25
-6.819672 3.724590 -16.115410 8 22 31
-6.745098 3.712418 -16.062746 16 32 35
-6.692811 3.712418 -16.062746 88 90 79
-6.662295 3.724590 -16.115410 89 83 73
-6.631579 3.736842 -16.168421 92 86 75
-6.578948 3.736842 -16.168421 98 88 79
-6.504918 3.724590 -16.115410 56 53 60
-6.452459 3.724590 -16.115410 2 12 16
-6.421052 3.736842 -16.168421 15 24 31
-6.368421 3.736842 -16.168421 8 21 28
-6.254072 3.700326 -16.010424 14 30 37
-6.201954 3.700326 -16.010424 69 75 67
-6.149837 3.700326 -16.010424 123 110 102
-5.750000 3.550000 -15.360001 81 72 75
-5.682243 3.538941 -15.312150 4 16 25
-5.650000 3.550000 -15.360001 14 22 32
-5.617555 3.561129 -15.408151 8 21 29
-5.656051 3.617834 -15.653503 10 20 25
-5.677419 3.664516 -15.855485 8 17 12
-5.574193 3.664516 -15.855485 7 15 14
-5.417722 3.594937 -15.554431 7 16 12
-5.316615 3.561129 -15.408151 7 16 13
-5.266458 3.561129 -15.408151 7 14 11
-5.183801 3.538941 -15.312150 8 17 13
-5.039755 3.474006 -15.031194 8 14 11
-4.785924 3.331378 -14.414077 7 16 13
-4.739003 3.331378 -14.414077 6 12 9
-4.571429 3.245714 -14.043429 6 13 11
-4.525714 3.245714 -14.043429 6 13 10
-4.869565 3.527950 -15.264597 6 13 11
-4.938907 3.652733 -15.804502 7 19 13
-4.903226 3.664516 -15.855485 10 18 13
-4.867314 3.676375 -15.906796 10 18 17
-4.831169 3.688312 -15.958442 10 17 12
-4.763754 3.676375 -15.906796 11 18 15
-4.711974 3.676375 -15.906796 10 17 15
-4.660194 3.676375 -15.906796 10 18 15
-4.608414 3.676375 -15.906796 6 14 11
-4.586319 3.700326 -16.010424 9 15 13
-4.549020 3.712418 -16.062746 13 16 12
-4.511476 3.724590 -16.115410 9 15 14
-4.473684 3.736842 -16.168421 5 11 9
-4.435644 3.749175 -16.221783 5 13 11
-4.397351 3.761589 -16.275497 6 15 11
-4.344371 3.761589 -16.275497 10 18 16
-4.291391 3.761589 -16.275497 7 14 11
-4.157895 3.736842 -16.168421 4 10 10
-3.250000 2.958333 -12.800000 6 13 11
-3.191710 2.943005 -12.733679 10 18 13
-3.150259 2.943005 -12.733679 9 15 12
-3.125000 2.958333 -12.800000 5 11 9
-3.083333 2.958333 -12.800000 7 13 13
-3.049608 2.966058 -12.833421 6 14 10
-3.007833 2.966058 -12.833421 5 14 11
-2.973822 2.973822 -12.867016 6 13 8
-2.931937 2.973822 -12.867016 11 20 14
-2.838046 2.920309 -12.635476 15 20 15
-2.775510 2.897959 -12.538776 6 17 11
-2.734694 2.897959 -12.538776 58 61 53
-2.700767 2.905371 -12.570845 104 94 90
-2.673522 2.920309 -12.635476 100 91 79
-2.639175 2.927835 -12.668042 84 79 68
-2.611399 2.943005 -12.733679 134 123 114
-2.569948 2.943005 -12.733679 123 111 103
-2.528497 2.943005 -12.733679 129 117 106
-2.474227 2.927835 -12.668042 124 114 104
-2.426735 2.920309 -12.635476 125 112 102
-2.373402 2.905371 -12.570845 123 112 103
-2.332481 2.905371 -12.570845 121 109 99
-2.285714 2.897959 -12.538776 109 94 91
-2.205514 2.847118 -12.318797 24 21 19
-2.160000 2.840000 -12.288000 5 10 7
-2.120000 2.840000 -12.288000 11 16 14
-2.080000 2.840000 -12.288000 9 17 14
-2.040000 2.840000 -12.288000 9 14 12
-2.000000 2.840000 -12.288000 10 17 15
-1.960000 2.840000 -12.288000 11 17 15
-1.920000 2.840000 -12.288000 10 18 15
-1.880000 2.840000 -12.288000 8 17 14
-1.844612 2.847118 -12.318797 10 18 15
-1.809045 2.854271 -12.349750 10 15 12
-1.768844 2.854271 -12.349750 10 16 15
-1.737374 2.868687 -12.412122 8 15 13
-1.696970 2.868687 -12.412122 8 18 15
-1.660759 2.875949 -12.443544 8 16 11
-1.645244 2.920309 -12.635476 26 35 25
-1.604113 2.920309 -12.635476 42 43 36
-1.558974 2.912821 -12.603078 21 24 20
-1.498734 2.875949 -12.443544 5 12 8
-1.458228 2.875949 -12.443544 13 19 18
-1.432225 2.905371 -12.570845 9 17 12
-1.391304 2.905371 -12.570845 9 19 16
-1.350384 2.905371 -12.570845 14 30 16
-1.289672 2.861461 -12.380857 125 125 111
-1.243108 2.847118 -12.318797 156 139 130
-1.203007 2.847118 -12.318797 136 126 115
-1.165829 2.854271 -12.349750 132 120 110
-1.131313 2.868687 -12.412122 135 123 114
-1.090909 2.868687 -12.412122 124 112 102
-1.050505 2.868687 -12.412122 121 108 99
-1.007557 2.861461 -12.380857 114 97 92
-0.969697 2.868687 -12.412122 44 45 34
-0.941176 2.905371 -12.570845 94 92 86
-0.907216 2.927835 -12.668042 60 53 52
-0.875000 2.958333 -12.800000 20 25 18
-0.898876 3.191011 -13.806742 94 87 83
-1.000000 3.736842 -16.168421 71 61 58
-0.947368 3.736842 -16.168421 7 15 5
-0.894737 3.736842 -16.168421 22 27 20
-0.842105 3.736842 -16.168421 20 27 21
-0.789474 3.736842 -16.168421 26 32 25
-0.736842 3.736842 -16.168421 26 34 25
-0.684211 3.736842 -16.168421 37 43 32
-0.631579 3.736842 -16.168421 55 59 50
-0.578947 3.736842 -16.168421 59 60 49
-0.526316 3.736842 -16.168421 71 71 56
-0.473684 3.736842 -16.168421 110 100 92
-0.421053 3.736842 -16.168421 106 96 87
-0.368421 3.736842 -16.168421 103 90 84
-0.315789 3.736842 -16.168421 80 72 64
-0.263158 3.736842 -16.168421 60 60 49
-0.210526 3.736842 -16.168421 71 72 60
-0.157895 3.736842 -16.168421 103 94 87
-0.105263 3.736842 -16.168421 88 82 71
-0.052632 3.736842 -16.168421 87 78 70
0.000000 3.736842 -16.168421 80 72 65
0.052288 3.712418 -16.062746 63 56 47
0.105263 3.736842 -16.168421 58 57 51
0.333333 2.958333 -12.800000 11 22 13
0.375000 2.958333 -12.800000 7 16 11
0.416667 2.958333 -12.800000 13 22 19
0.457143 2.950649 -12.766754 33 37 33
0.498701 2.950649 -12.766754 38 40 39
0.681542 2.304260 -9.969980 67 70 54
0.709677 2.290323 -9.909678 89 89 76
0.741935 2.290323 -9.909678 73 83 61
0.774194 2.290323 -9.909678 65 72 52
0.806452 2.290323 -9.909678 101 98 85
0.838710 2.290323 -9.909678 40 70 38
0.870968 2.290323 -9.909678 114 112 100
0.903226 2.290323 -9.909678 112 101 86
0.935484 2.290323 -9.909678 153 146 133
0.967742 2.290323 -9.909678 112 111 93
1.000000 2.290323 -9.909678 67 92 59
1.032258 2.290323 -9.909678 171 173 161
1.064516 2.290323 -9.909678 207 174 175
1.096774 2.290323 -9.909678 62 67 42
1.129032 2.290323 -9.909678 136 132 115
1.161290 2.290323 -9.909678 154 142 131
1.193548 2.290323 -9.909678 93 88 69
1.225806 2.290323 -9.909678 153 150 133
2.019418 3.676375 -15.906796 117 108 90
2.091503 3.712418 -16.062746 67 89 58
2.157895 3.736842 -16.168421 109 103 91
2.210526 3.736842 -16.168421 117 103 96
2.263158 3.736842 -16.168421 48 60 41
2.300654 3.712418 -16.062746 80 88 72
2.330097 3.676375 -15.906796 91 81 77
2.366560 3.652733 -15.804502 64 60 49
2.449511 3.700326 -16.010424 46 50 37
2.518033 3.724590 -16.115410 40 49 32
2.578947 3.736842 -16.168421 88 88 70
2.631579 3.736842 -16.168421 124 110 97
2.684211 3.736842 -16.168421 103 89 75
2.736842 3.736842 -16.168421 102 86 78
2.789474 3.736842 -16.168421 79 66 59
2.842105 3.736842 -16.168421 29 26 21
2.885246 3.724590 -16.115410 4 11 4
2.947368 3.736842 -16.168421 17 19 15
3.000000 3.736842 -16.168421 9 15 11
3.052632 3.736842 -16.168421 11 18 12
3.105263 3.736842 -16.168421 21 34 18
3.157895 3.736842 -16.168421 71 80 61
3.210526 3.736842 -16.168421 122 110 105
3.263158 3.736842 -16.168421 47 45 28
3.315789 3.736842 -16.168421 71 69 47
3.368421 3.736842 -16.168421 109 92 77
3.421053 3.736842 -16.168421 102 89 72
3.473684 3.736842 -16.168421 93 81 63
3.526316 3.736842 -16.168421 98 85 68
3.578947 3.736842 -16.168421 93 81 64
3.619672 3.724590 -16.115410 86 72 61
3.672131 3.724590 -16.115410 48 44 32
3.736842 3.736842 -16.168421 50 54 40
3.789474 3.736842 -16.168421 74 66 61
3.842105 3.736842 -16.168421 39 42 27
3.894737 3.736842 -16.168421 80 73 55
3.947368 3.736842 -16.168421 92 85 58
4.000000 3.736842 -16.168421 112 95 74
4.052631 3.736842 -16.168421 96 84 63
4.105263 3.736842 -16.168421 87 75 58
4.157895 3.736842 -16.168421 84 72 59
4.210526 3.736842 -16.168421 67 59 55
4.263158 3.736842 -16.168421 3 13 0
4.315790 3.736842 -16.168421 71 74 66
4.382838 3.749175 -16.221783 82 72 63
4.421052 3.736842 -16.168421 67 65 50
4.473684 3.736842 -16.168421 83 72 65
4.526316 3.736842 -16.168421 55 51 41
4.578948 3.736842 -16.168421 27 26 22
4.616394 3.724590 -16.115410 2 11 7
4.684210 3.736842 -16.168421 7 13 9
4.736842 3.736842 -16.168421 7 14 11
4.789474 3.736842 -16.168421 7 13 10
4.842105 3.736842 -16.168421 8 14 12
4.894737 3.736842 -16.168421 5 10 7
4.947369 3.736842 -16.168421 6 11 10
5.000000 3.736842 -16.168421 5 11 8
5.052631 3.736842 -16.168421 6 16 11
5.088525 3.724590 -16.115410 30 43 30
5.140984 3.724590 -16.115410 85 80 76
5.193443 3.724590 -16.115410 49 48 41
5.263158 3.736842 -16.168421 41 50 55
5.315790 3.736842 -16.168421 20 42 46
5.368421 3.736842 -16.168421 24 45 54
5.421052 3.736842 -16.168421 25 46 52
5.437909 3.712418 -16.062746 21 46 51
5.454545 3.688312 -15.958442 23 46 51
5.488673 3.676375 -15.906796 24 47 54
5.469648 3.629393 -15.703515 21 43 51
5.468354 3.594937 -15.554431 23 44 53
5.501577 3.583596 -15.505363 18 36 38
5.552051 3.583596 -15.505363 16 28 20
5.620253 3.594937 -15.554431 25 35 23
5.670886 3.594937 -15.554431 43 52 45
5.721519 3.594937 -15.554431 53 62 64
5.717868 3.561129 -15.408151 32 50 59
5.750000 3.550000 -15.360001 20 43 48
5.800000 3.550000 -15.360001 25 47 53
5.850000 3.550000 -15.360001 25 48 53
5.900000 3.550000 -15.360001 24 47 50
5.950000 3.550000 -15.360001 23 46 50
6.000000 3.550000 -15.360001 23 47 51
6.050000 3.550000 -15.360001 24 45 50
6.100000 3.550000 -15.360001 22 41 46
6.150000 3.550000 -15.360001 13 23 21
6.200000 3.550000 -15.360001 14 27 16
6.250000 3.550000 -15.360001 45 60 36
6.300000 3.550000 -15.360001 133 122 108
6.350000 3.550000 -15.360001 117 104 90
6.400000 3.550000 -15.360001 123 111 96
6.450000 3.550000 -15.360001 128 112 95
6.500000 3.550000 -15.360001 131 115 101
6.550000 3.550000 -15.360001 126 112 97
6.600000 3.550000 -15.360001 129 115 100
6.650000 3.550000 -15.360001 126 113 99
6.700000 3.550000 -15.360001 129 115 100
6.750000 3.550000 -15.360001 126 113 98
6.800000 3.550000 -15.360001 126 114 99
6.850000 3.550000 -15.360001 127 115 100
6.900000 3.550000 -15.360001 128 115 101
6.950000 3.550000 -15.360001 130 116 103
7.000000 3.550000 -15.360001 129 115 104
7.028038 3.538941 -15.312150 130 115 102
7.077882 3.538941 -15.312150 128 114 102
7.127726 3.538941 -15.312150 122 111 98
7.177570 3.538941 -15.312150 120 108 94
7.227414 3.538941 -15.312150 118 106 93
7.277258 3.538941 -15.312150 115 104 90
7.327103 3.538941 -15.312150 121 109 95
7.376947 3.538941 -15.312150 128 116 103
7.450000 3.550000 -15.360001 128 114 100
7.476635 3.538941 -15.312150 128 115 101
7.526480 3.538941 -15.312150 136 119 106
7.576324 3.538941 -15.312150 130 117 104
7.626168 3.538941 -15.312150 130 117 102
7.676013 3.538941 -15.312150 135 120 106
7.750000 3.550000 -15.360001 133 117 105
7.800000 3.550000 -15.360001 135 121 107
7.850000 3.550000 -15.360001 132 118 104
7.900000 3.550000 -15.360001 133 119 106
7.950000 3.550000 -15.360001 134 119 104
8.000000 3.550000 -15.360001 134 120 106
8.050000 3.550000 -15.360001 134 119 105
8.100000 3.550000 -15.360001 133 119 105
8.124611 3.538941 -15.312150 132 118 103
8.174455 3.538941 -15.312150 134 121 105
8.224299 3.538941 -15.312150 132 117 103
8.274143 3.538941 -15.312150 133 119 102
8.323988 3.538941 -15.312150 132 117 100
8.347826 3.527950 -15.264597 134 118 104
8.397515 3.527950 -15.264597 131 116 102
8.447205 3.527950 -15.264597 134 118 105
8.523364 3.538941 -15.312150 128 112 99
8.573209 3.538941 -15.312150 117 105 93
8.623053 3.538941 -15.312150 109 100 84
8.672897 3.538941 -15.312150 120 106 93
8.722741 3.538941 -15.312150 119 105 93
8.772586 3.538941 -15.312150 112 100 89
8.795031 3.527950 -15.264597 94 87 73
8.872274 3.538941 -15.312150 74 79 61
8.922118 3.538941 -15.312150 91 89 74
9.000000 3.550000 -15.360001 113 102 89
9.021807 3.538941 -15.312150 113 104 89
9.071651 3.538941 -15.312150 115 105 92
9.093167 3.527950 -15.264597 109 102 88
9.114552 3.517028 -15.217338 111 106 92
9.164086 3.517028 -15.217338 125 113 97
9.185185 3.506173 -15.170371 128 117 101
9.234568 3.506173 -15.170371 130 117 101
9.283951 3.506173 -15.170371 133 120 104
9.362229 3.517028 -15.217338 134 112 101
9.470405 3.538941 -15.312150 109 84 84
9.550000 3.550000 -15.360001 26 23 25
-1.774697 0.647025 -2.839515 7 10 11
-1.739328 0.637450 -2.797496 17 27 20
-1.727273 0.636364 -2.792727 13 22 17
-1.719159 0.636725 -2.794315 17 24 19
-1.712984 0.637813 -2.799089 15 23 19
-1.717566 0.642939 -2.821584 15 22 18
-1.713299 0.644790 -2.829706 13 23 18
-1.711972 0.647773 -2.842799 13 22 18
-1.694876 0.644790 -2.829706 15 25 23
-1.676976 0.641466 -2.815120 22 32 32
-1.670683 0.642570 -2.819966 33 39 40
-3.484185 1.362530 -5.979562 95 94 87
-3.406698 1.339713 -5.879426 105 103 94
-3.383512 1.338112 -5.872402 115 112 102
-3.364397 1.338112 -5.872402 121 118 106
-10.937500 4.375000 -19.200001 111 106 97
-10.875000 4.375000 -19.200001 90 89 84
-10.812500 4.375000 -19.200001 63 71 70
-10.117647 4.117647 -18.070589 76 82 83
-10.058824 4.117647 -18.070589 82 85 86
-9.927008 4.087591 -17.938686 86 89 88
-9.868613 4.087591 -17.938686 87 88 90
-9.498233 3.957597 -17.368198 88 92 92
-8.675324 3.636364 -15.958442 91 92 90
-8.352201 3.522012 -15.456604 94 95 92
-8.198758 3.478261 -15.264597 98 98 96
-8.024465 3.425076 -15.031194 100 96 92
-7.975535 3.425076 -15.031194 45 51 42
-7.926606 3.425076 -15.031194 16 28 23
-7.901841 3.435583 -15.077301 37 52 53
-7.876923 3.446154 -15.123693 94 100 105
-7.876161 3.467492 -15.217338 81 85 88
-7.875390 3.489097 -15.312150 83 89 93
-7.850000 3.500000 -15.360001 82 89 90
-7.800000 3.500000 -15.360001 92 96 100
-7.701863 3.478261 -15.264597 93 96 97
-7.628483 3.467492 -15.217338 97 102 102
-7.578948 3.467492 -15.217338 99 100 100
-7.552795 3.478261 -15.264597 104 102 100
-7.503106 3.478261 -15.264597 54 54 53
-7.476635 3.489097 -15.312150 0 0 0
-7.450000 3.500000 -15.360001 10 17 16
-7.423197 3.510972 -15.408151 4 14 11
-7.419559 3.533123 -15.505363 10 18 16
-7.369085 3.533123 -15.505363 21 27 22
-7.365079 3.555556 -15.603810 16 24 20
-7.337580 3.566879 -15.653503 30 36 29
-7.356913 3.601286 -15.804502 89 79 81
-7.235669 3.566879 -15.653503 25 25 35
-7.161905 3.555556 -15.603810 10 18 26
-7.156549 3.578275 -15.703515 7 18 26
-7.174193 3.612903 -15.855485 12 25 34
-7.122581 3.612903 -15.855485 23 40 42
-7.116883 3.636364 -15.958442 107 102 93
-7.111111 3.660131 -16.062746 103 94 85
-7.081967 3.672131 -16.115410 91 86 73
-7.029508 3.672131 -16.115410 112 100 93
-6.977049 3.672131 -16.115410 47 46 50
-6.924590 3.672131 -16.115410 3 15 23
-6.872131 3.672131 -16.115410 12 21 30
-6.819672 3.672131 -16.115410 8 21 28
-6.745098 3.660131 -16.062746 15 30 36
-6.692811 3.660131 -16.062746 72 76 68
-6.662295 3.672131 -16.115410 101 91 84
-6.609836 3.672131 -16.115410 88 87 73
-6.557377 3.672131 -16.115410 110 97 92
-6.504918 3.672131 -16.115410 69 64 67
-6.452459 3.672131 -16.115410 1 12 19
-6.421052 3.684211 -16.168421 15 25 36
-6.347541 3.672131 -16.115410 6 19 26
-6.254072 3.648208 -16.010424 11 28 37
-6.181818 3.636364 -15.958442 52 63 56
-5.700000 3.500000 -15.360001 13 20 28
-5.650000 3.500000 -15.360001 10 20 31
-5.617555 3.510972 -15.408151 9 20 27
-5.620253 3.544304 -15.554431 10 19 23
-5.200000 3.500000 -15.360001 8 14 13
-4.140704 2.814070 -12.349750 7 14 11
-4.100502 2.814070 -12.349750 7 15 13
-4.091139 2.835443 -12.443544 6 12 11
-4.060914 2.842640 -12.475127 6 14 11
-4.020305 2.842640 -12.475127 6 12 9
-4.970874 3.624595 -15.906796 6 15 13
-3.917526 2.886598 -12.668042 9 17 12
-4.883117 3.636364 -15.958442 11 19 17
-4.831169 3.636364 -15.958442 11 18 15
-4.779221 3.636364 -15.958442 11 20 16
-4.711974 3.624595 -15.906796 10 17 13
-4.660194 3.624595 -15.906796 10 17 15
-4.638436 3.648208 -16.010424 6 14 10
-4.601307 3.660131 -16.062746 11 14 12
-4.549020 3.660131 -16.062746 14 13 11
-4.511476 3.672131 -16.115410 6 13 11
-4.459016 3.672131 -16.115410 3 10 8
-4.406558 3.672131 -16.115410 5 12 12
-3.422680 2.886598 -12.668042 5 11 10
-3.381443 2.886598 -12.668042 7 14 12
-3.348837 2.894057 -12.700776 6 11 9
-3.316062 2.901554 -12.733679 5 12 11
-3.274611 2.901554 -12.733679 4 10 8
-3.224806 2.894057 -12.700776 5 14 10
-3.183463 2.894057 -12.700776 8 14 13
-3.142119 2.894057 -12.700776 7 15 13
-3.108808 2.901554 -12.733679 3 11 7
-3.075325 2.909091 -12.766754 6 15 12
-3.033766 2.909091 -12.766754 9 16 14
-2.992208 2.909091 -12.766754 5 13 11
-2.943005 2.901554 -12.733679 6 12 10
-2.894057 2.894057 -12.700776 6 15 11
-2.830769 2.871795 -12.603078 11 19 17
-2.768448 2.849873 -12.506870 16 25 21
-2.720812 2.842640 -12.475127 69 78 64
-2.666667 2.828283 -12.412122 194 175 180
-2.659847 2.864450 -12.570845 153 132 134
-2.632391 2.879177 -12.635476 81 74 63
-2.611399 2.901554 -12.733679 140 129 120
-2.569948 2.901554 -12.733679 124 112 102
-2.528497 2.901554 -12.733679 131 119 109
-2.467866 2.879177 -12.635476 125 116 105
-2.414322 2.864450 -12.570845 124 111 102
-2.355330 2.842640 -12.475127 129 116 108
-2.320611 2.849873 -12.506870 125 111 104
-2.274112 2.842640 -12.475127 105 92 88
-2.205514 2.807018 -12.318797 23 20 18
-2.160000 2.800000 -12.288000 7 11 8
-2.120000 2.800000 -12.288000 11 16 13
-2.080000 2.800000 -12.288000 11 20 15
-2.040000 2.800000 -12.288000 9 16 12
-2.000000 2.800000 -12.288000 11 19 15
-1.960000 2.800000 -12.288000 8 17 13
-1.920000 2.800000 -12.288000 10 18 15
-1.884712 2.807018 -12.318797 8 16 12
-1.849246 2.814070 -12.349750 9 19 16
-1.813602 2.821159 -12.380857 8 16 12
-1.773300 2.821159 -12.380857 10 19 16
-1.737374 2.828283 -12.412122 8 17 13
-1.696970 2.828283 -12.412122 10 18 15
-1.660759 2.835443 -12.443544 8 20 13
-1.645244 2.879177 -12.635476 26 34 27
-1.604113 2.879177 -12.635476 39 42 38
-1.562982 2.879177 -12.635476 22 27 22
-1.498734 2.835443 -12.443544 4 14 8
-1.458228 2.835443 -12.443544 13 21 18
-1.428571 2.857143 -12.538776 10 16 12
-1.391304 2.864450 -12.570845 10 18 14
-1.346939 2.857143 -12.538776 13 28 13
-1.289672 2.821159 -12.380857 122 123 108
-1.243108 2.807018 -12.318797 153 136 130
-1.203007 2.807018 -12.318797 133 124 110
-1.162907 2.807018 -12.318797 133 120 107
-1.125628 2.814070 -12.349750 137 123 114
-1.085427 2.814070 -12.349750 129 116 104
-1.047859 2.821159 -12.380857 123 111 101
-1.007557 2.821159 -12.380857 115 99 95
-0.969697 2.828283 -12.412122 41 42 33
-0.931646 2.835443 -12.443544 96 94 92
-0.904884 2.879177 -12.635476 58 50 50
-0.875000 2.916667 -12.800000 19 23 17
-0.896359 3.137255 -13.768067 93 86 78
-1.000000 3.684211 -16.168421 70 62 60
-0.950495 3.696370 -16.221783 6 16 6
-0.897690 3.696370 -16.221783 22 28 24
-0.844885 3.696370 -16.221783 17 27 21
-0.789474 3.684211 -16.168421 25 30 21
-0.736842 3.684211 -16.168421 30 34 27
-0.684211 3.684211 -16.168421 40 43 33
-0.631579 3.684211 -16.168421 61 62 53
-0.578947 3.684211 -16.168421 59 60 50
-0.526316 3.684211 -16.168421 68 70 57
-0.473684 3.684211 -16.168421 110 102 94
-0.422442 3.696370 -16.221783 107 97 88
-0.368421 3.684211 -16.168421 103 91 84
-0.315789 3.684211 -16.168421 81 75 68
-0.263158 3.684211 -16.168421 61 60 50
-0.210526 3.684211 -16.168421 69 70 59
-0.157895 3.684211 -16.168421 104 94 89
-0.105263 3.684211 -16.168421 87 80 70
-0.052459 3.672131 -16.115410 87 78 70
0.000000 3.660131 -16.062746 81 72 64
0.051948 3.636364 -15.958442 68 60 51
0.104575 3.660131 -16.062746 61 58 53
0.291667 2.916667 -12.800000 6 14 4
0.333333 2.916667 -12.800000 11 18 15
0.375000 2.916667 -12.800000 14 22 18
0.416667 2.916667 -12.800000 37 40 37
0.457143 2.909091 -12.766754 34 36 31
0.497409 2.901554 -12.733679 16 26 18
0.538860 2.901554 -12.733679 9 19 12
0.681542 2.271805 -9.969980 82 79 67
0.709677 2.258065 -9.909678 100 87 80
0.741935 2.258065 -9.909678 111 103 94
0.774194 2.258065 -9.909678 91 67 62
0.806452 2.258065 -9.909678 99 91 74
0.838710 2.258065 -9.909678 131 123 109
0.870968 2.258065 -9.909678 142 123 117
0.903226 2.258065 -9.909678 111 96 85
0.935484 2.258065 -9.909678 139 123 113
0.967742 2.258065 -9.909678 151 142 128
1.000000 2.258065 -9.909678 132 122 110
1.032258 2.258065 -9.909678 186 186 174
1.064516 2.258065 -9.909678 218 181 185
1.096774 2.258065 -9.909678 69 67 47
1.129032 2.258065 -9.909678 190 173 167
1.161290 2.258065 -9.909678 147 126 115
1.193548 2.258065 -9.909678 104 86 71
1.225806 2.258065 -9.909678 147 133 118
1.258065 2.258065 -9.909678 127 116 97
1.290323 2.258065 -9.909678 136 121 109
1.322581 2.258065 -9.909678 106 87 74
2.196079 3.660131 -16.062746 94 72 63
2.255738 3.672131 -16.115410 104 101 85
2.300654 3.660131 -16.062746 126 111 103
2.330097 3.624595 -15.906796 56 54 36
2.358974 3.589744 -15.753847 100 87 79
2.441558 3.636364 -15.958442 57 50 39
2.518033 3.672131 -16.115410 33 37 21
2.578947 3.684211 -16.168421 87 89 69
2.631579 3.684211 -16.168421 121 106 97
2.684211 3.684211 -16.168421 104 91 78
2.736842 3.684211 -16.168421 101 85 75
2.789474 3.684211 -16.168421 82 69 63
2.832787 3.672131 -16.115410 37 32 29
2.885246 3.672131 -16.115410 2 8 2
2.947368 3.684211 -16.168421 18 20 18
3.000000 3.684211 -16.168421 9 15 10
3.052632 3.684211 -16.168421 12 20 12
3.105263 3.684211 -16.168421 20 32 15
3.157895 3.684211 -16.168421 63 72 54
3.210526 3.684211 -16.168421 118 107 104
3.263158 3.684211 -16.168421 65 58 41
3.315789 3.684211 -16.168421 56 56 33
3.368421 3.684211 -16.168421 112 95 77
3.421053 3.684211 -16.168421 101 88 68
3.473684 3.684211 -16.168421 92 82 63
3.526316 3.684211 -16.168421 99 85 68
3.578947 3.684211 -16.168421 92 81 65
3.619672 3.672131 -16.115410 87 73 62
3.672131 3.672131 -16.115410 51 46 35
3.736842 3.684211 -16.168421 46 50 36
3.789474 3.684211 -16.168421 80 72 69
3.842105 3.684211 -16.168421 35 40 25
3.894737 3.684211 -16.168421 81 76 57
3.947368 3.684211 -16.168421 86 79 51
4.000000 3.684211 -16.168421 119 98 79
4.052631 3.684211 -16.168421 96 84 62
4.105263 3.684211 -16.168421 89 77 58
4.157895 3.684211 -16.168421 83 72 55
4.210526 3.684211 -16.168421 70 62 57
4.263158 3.684211 -16.168421 9 16 5
4.315790 3.684211 -16.168421 60 68 59
4.382838 3.696370 -16.221783 87 76 70
4.421052 3.684211 -16.168421 66 63 51
4.473684 3.684211 -16.168421 86 73 66
4.526316 3.684211 -16.168421 59 53 44
4.578948 3.684211 -16.168421 37 31 28
4.631579 3.684211 -16.168421 2 10 5
4.684210 3.684211 -16.168421 9 13 11
4.736842 3.684211 -16.168421 6 13 13
4.789474 3.684211 -16.168421 7 12 12
4.842105 3.684211 -16.168421 9 16 13
4.894737 3.684211 -16.168421 4 10 8
4.947369 3.684211 -16.168421 5 13 11
5.000000 3.684211 -16.168421 4 12 8
5.052631 3.684211 -16.168421 6 18 13
5.088525 3.672131 -16.115410 23 37 28
5.140984 3.672131 -16.115410 74 74 68
5.210526 3.684211 -16.168421 53 51 44
5.263158 3.684211 -16.168421 39 53 55
5.315790 3.684211 -16.168421 21 45 49
5.368421 3.684211 -16.168421 23 46 53
5.403279 3.672131 -16.115410 24 47 52
5.420196 3.648208 -16.010424 23 47 53
5.436893 3.624595 -15.906796 23 45 50
5.470968 3.612903 -15.855485 24 48 53
5.469648 3.578275 -15.703515 23 45 51
5.468354 3.544304 -15.554431 23 43 51
5.501577 3.533123 -15.505363 19 36 38
5.552051 3.533123 -15.505363 15 26 21
5.602524 3.533123 -15.505363 24 34 23
5.670886 3.544304 -15.554431 43 53 43
5.703470 3.533123 -15.505363 58 69 67
5.717868 3.510972 -15.408151 32 52 57
5.750000 3.500000 -15.360001 20 46 49
5.800000 3.500000 -15.360001 25 48 53
5.850000 3.500000 -15.360001 25 47 53
5.900000 3.500000 -15.360001 22 46 51
5.950000 3.500000 -15.360001 24 48 53
6.000000 3.500000 -15.360001 24 49 53
6.050000 3.500000 -15.360001 22 44 50
6.100000 3.500000 -15.360001 21 38 46
6.150000 3.500000 -15.360001 13 23 21
6.200000 3.500000 -15.360001 12 26 16
6.250000 3.500000 -15.360001 46 62 39
6.300000 3.500000 -15.360001 133 123 109
6.350000 3.500000 -15.360001 120 107 92
6.400000 3.500000 -15.360001 122 111 95
6.450000 3.500000 -15.360001 127 112 95
6.500000 3.500000 -15.360001 130 115 100
6.550000 3.500000 -15.360001 125 113 98
6.600000 3.500000 -15.360001 129 116 101
6.650000 3.500000 -15.360001 127 111 98
6.700000 3.500000 -15.360001 130 117 104
6.750000 3.500000 -15.360001 126 113 99
6.800000 3.500000 -15.360001 127 114 101
6.850000 3.500000 -15.360001 127 114 98
6.900000 3.500000 -15.360001 129 117 102
6.950000 3.500000 -15.360001 127 115 102
7.000000 3.500000 -15.360001 129 117 104
7.028038 3.489097 -15.312150 129 115 100
7.100000 3.500000 -15.360001 128 115 101
7.127726 3.489097 -15.312150 125 110 100
7.177570 3.489097 -15.312150 121 108 97
7.227414 3.489097 -15.312150 112 102 89
7.277258 3.489097 -15.312150 107 99 87
7.327103 3.489097 -15.312150 111 102 86
7.376947 3.489097 -15.312150 131 118 103
7.426791 3.489097 -15.312150 126 115 100
7.476635 3.489097 -15.312150 132 120 105
7.526480 3.489097 -15.312150 135 121 108
7.576324 3.489097 -15.312150 133 119 106
7.626168 3.489097 -15.312150 129 117 100
7.676013 3.489097 -15.312150 133 120 107
7.750000 3.500000 -15.360001 132 118 105
7.800000 3.500000 -15.360001 133 120 105
7.850000 3.500000 -15.360001 131 117 102
7.900000 3.500000 -15.360001 133 121 106
7.950000 3.500000 -15.360001 133 119 104
8.000000 3.500000 -15.360001 132 120 107
8.050000 3.500000 -15.360001 133 118 104
8.074766 3.489097 -15.312150 133 120 106
8.124611 3.489097 -15.312150 132 118 103
8.174455 3.489097 -15.312150 133 119 107
8.224299 3.489097 -15.312150 131 117 103
8.274143 3.489097 -15.312150 133 119 103
8.323988 3.489097 -15.312150 132 117 98
8.347826 3.478261 -15.264597 134 119 104
8.423676 3.489097 -15.312150 133 118 103
8.447205 3.478261 -15.264597 132 118 105
8.496895 3.478261 -15.264597 129 112 102
8.546584 3.478261 -15.264597 120 107 96
8.623053 3.489097 -15.312150 127 109 97
8.672897 3.489097 -15.312150 129 112 100
8.722741 3.489097 -15.312150 117 104 88
8.772586 3.489097 -15.312150 108 98 86
8.822430 3.489097 -15.312150 109 94 84
8.872274 3.489097 -15.312150 109 96 86
8.922118 3.489097 -15.312150 115 100 88
9.000000 3.500000 -15.360001 118 106 93
9.050000 3.500000 -15.360001 115 105 94
9.100000 3.500000 -15.360001 120 108 96
9.121495 3.489097 -15.312150 122 104 93
9.114552 3.467492 -15.217338 116 105 90
9.164086 3.467492 -15.217338 114 106 91
9.185185 3.456790 -15.170371 125 115 101
9.206154 3.446154 -15.123693 134 118 103
9.283951 3.456790 -15.170371 135 120 105
9.333333 3.456790 -15.170371 134 113 100
9.470405 3.489097 -15.312150 110 86 83
9.550000 3.500000 -15.360001 25 23 23
-1.774697 0.637782 -2.839515 7 10 10
-1.739328 0.628344 -2.797496 17 26 20
-1.728255 0.627629 -2.794315 14 21 16
-1.719159 0.627629 -2.794315 18 24 20
-1.726751 0.633754 -2.821584 15 23 18
-1.721519 0.635213 -2.828078 15 24 17
-1.716263 0.636678 -2.834602 12 23 18
-1.709007 0.637413 -2.837875 12 24 20
-1.694876 0.635579 -2.829706 15 26 21
-1.671233 0.630137 -2.805480 23 31 30
-1.667812 0.632302 -2.815120 31 41 40
-10.306049 3.928826 -17.491816 44 51 48
-10.249110 3.928826 -17.491816 61 68 65
-9.390164 3.619672 -16.115410 81 83 76
-3.460510 1.341434 -5.972297 91 92 84
-3.383512 1.318996 -5.872402 100 101 89
-11.000000 4.312500 -19.200001 109 107 97
-10.937500 4.312500 -19.200001 104 101 92
-10.875000 4.312500 -19.200001 86 86 79
-10.812500 4.312500 -19.200001 63 70 68
-10.117647 4.058824 -18.070589 77 82 82
-10.021978 4.043956 -18.004396 82 86 85
-9.927008 4.029197 -17.938686 86 89 89
-9.622776 3.928826 -17.491816 86 89 86
-9.268966 3.806896 -16.948967 88 94 91
-8.675324 3.584416 -15.958442 92 94 92
-8.326018 3.460815 -15.408151 95 96 94
-8.198758 3.428571 -15.264597 96 97 94
-8.024465 3.376147 -15.031194 97 96 92
-7.975535 3.376147 -15.031194 45 50 46
-7.926606 3.376147 -15.031194 21 31 28
-7.901841 3.386503 -15.077301 37 50 53
-7.876923 3.396923 -15.123693 93 101 104
-7.876161 3.417957 -15.217338 79 86 89
-7.850932 3.428571 -15.264597 83 91 94
-7.850000 3.450000 -15.360001 82 90 90
-7.800000 3.450000 -15.360001 91 97 101
-7.701863 3.428571 -15.264597 95 98 101
-7.652174 3.428571 -15.264597 102 104 106
-7.602485 3.428571 -15.264597 103 103 104
-7.552795 3.428571 -15.264597 111 108 107
-7.503106 3.428571 -15.264597 60 59 57
-7.476635 3.439252 -15.312150 0 1 0
-7.426791 3.439252 -15.312150 11 16 16
-7.423197 3.460815 -15.408151 4 13 12
-7.373041 3.460815 -15.408151 7 17 14
-7.369085 3.482650 -15.505363 19 29 24
-7.318612 3.482650 -15.505363 16 23 16
-7.291139 3.493671 -15.554431 25 34 27
-7.240506 3.493671 -15.554431 92 88 84
-7.189873 3.493671 -15.554431 38 38 48
-7.161905 3.504762 -15.603810 8 18 25
-7.133758 3.515924 -15.653503 9 18 29
-7.151125 3.549839 -15.804502 11 24 35
-7.122581 3.561290 -15.855485 15 32 37
-7.093851 3.572815 -15.906796 86 87 78
-7.087948 3.596091 -16.010424 108 98 87
-7.081967 3.619672 -16.115410 88 83 70
-7.029508 3.619672 -16.115410 110 97 90
-6.977049 3.619672 -16.115410 67 62 65
-6.924590 3.619672 -16.115410 2 16 23
-6.872131 3.619672 -16.115410 14 23 32
-6.819672 3.619672 -16.115410 8 21 26
-6.767213 3.619672 -16.115410 12 26 32
-6.692811 3.607843 -16.062746 57 66 58
-6.662295 3.619672 -16.115410 109 99 90
-6.588235 3.607843 -16.062746 84 80 66
-6.535948 3.607843 -16.062746 113 99 90
-6.483660 3.607843 -16.062746 79 72 71
-6.452459 3.619672 -16.115410 8 14 22
-6.400000 3.619672 -16.115410 14 24 34
-6.347541 3.619672 -16.115410 6 19 25
-6.254072 3.596091 -16.010424 12 27 35
-6.201954 3.596091 -16.010424 37 51 46
-5.670886 3.493671 -15.554431 9 20 27
-5.250000 3.450000 -15.360001 8 15 12
-4.180904 2.773869 -12.349750 9 18 15
-4.140704 2.773869 -12.349750 9 17 14
-4.100502 2.773869 -12.349750 10 17 16
-4.070529 2.780856 -12.380857 8 14 13
-4.050633 2.794937 -12.443544 7 13 12
-4.010127 2.794937 -12.443544 6 13 12
-3.969620 2.794937 -12.443544 7 15 14
-3.979487 2.830769 -12.603078 7 14 11
-3.948586 2.838046 -12.635476 7 15 12
-3.907455 2.838046 -12.635476 9 16 13
-3.866324 2.838046 -12.635476 10 16 17
-4.831169 3.584416 -15.958442 8 16 13
-4.779221 3.584416 -15.958442 9 18 15
-4.742671 3.596091 -16.010424 9 15 11
-4.736842 3.631579 -16.168421 10 18 13
-3.564767 2.860104 -12.733679 10 17 15
-3.514212 2.852713 -12.700776 19 24 23
-3.463917 2.845361 -12.668042 11 16 15
-3.413882 2.838046 -12.635476 6 14 10
-3.372751 2.838046 -12.635476 7 15 13
-3.340206 2.845361 -12.668042 7 13 12
-3.307493 2.852713 -12.700776 8 15 14
-3.266150 2.852713 -12.700776 11 17 16
-3.216495 2.845361 -12.668042 11 17 16
-3.175258 2.845361 -12.668042 9 15 13
-3.134021 2.845361 -12.668042 7 14 12
-3.108808 2.860104 -12.733679 4 11 9
-3.075325 2.867532 -12.766754 8 17 12
-3.033766 2.867532 -12.766754 15 19 16
-2.984456 2.860104 -12.733679 7 14 13
-2.943005 2.860104 -12.733679 9 15 13
-2.894057 2.852713 -12.700776 4 13 11
-2.830769 2.830769 -12.603078 10 18 17
-2.761421 2.802031 -12.475127 13 27 22
-2.707071 2.787879 -12.412122 51 70 53
-2.666667 2.787879 -12.412122 136 142 131
-2.626263 2.787879 -12.412122 139 129 121
-2.625641 2.830769 -12.603078 73 70 55
-2.611399 2.860104 -12.733679 141 130 121
-2.569948 2.860104 -12.733679 124 114 104
-2.528497 2.860104 -12.733679 129 115 109
-2.455243 2.823529 -12.570845 126 116 104
-2.389874 2.794937 -12.443544 127 114 103
-2.349367 2.794937 -12.443544 126 115 104
-2.314721 2.802031 -12.475127 125 112 102
-2.274112 2.802031 -12.475127 105 92 87
-2.205514 2.766917 -12.318797 21 19 16
-2.160000 2.760000 -12.288000 7 12 9
-2.120000 2.760000 -12.288000 11 15 13
-2.080000 2.760000 -12.288000 11 20 15
-2.040000 2.760000 -12.288000 9 16 12
-2.000000 2.760000 -12.288000 10 17 16
-1.960000 2.760000 -12.288000 9 15 14
-1.920000 2.760000 -12.288000 10 18 16
-1.884712 2.766917 -12.318797 10 18 13
-1.849246 2.773869 -12.349750 10 19 15
-1.813602 2.780856 -12.380857 10 16 11
-1.773300 2.780856 -12.380857 10 19 16
-1.737374 2.787879 -12.412122 8 16 13
-1.701266 2.794937 -12.443544 10 18 16
-1.660759 2.794937 -12.443544 9 18 14
-1.645244 2.838046 -12.635476 27 34 29
-1.604113 2.838046 -12.635476 37 41 36
-1.562982 2.838046 -12.635476 21 26 24
-1.506361 2.809160 -12.506870 5 13 10
-1.465649 2.809160 -12.506870 13 19 18
-1.432225 2.823529 -12.570845 9 18 14
-1.391304 2.823529 -12.570845 11 18 15
-1.346939 2.816327 -12.538776 13 28 15
-1.286432 2.773869 -12.349750 121 123 110
-1.240000 2.760000 -12.288000 154 136 130
-1.200000 2.760000 -12.288000 135 124 112
-1.162907 2.766917 -12.318797 134 122 110
-1.125628 2.773869 -12.349750 142 129 120
-1.085427 2.773869 -12.349750 133 117 108
-1.047859 2.780856 -12.380857 124 110 100
-1.007557 2.780856 -12.380857 102 88 81
-0.969697 2.787879 -12.412122 42 43 32
-0.931646 2.794937 -12.443544 109 104 96
-0.902564 2.830769 -12.603078 66 53 55
-0.872727 2.867532 -12.766754 29 33 28
-0.893855 3.083799 -13.729609 109 97 96
-1.000000 3.631579 -16.168421 60 54 48
-0.950495 3.643564 -16.221783 9 17 7
-0.897690 3.643564 -16.221783 23 28 23
-0.844885 3.643564 -16.221783 19 26 19
-0.789474 3.631579 -16.168421 26 30 22
-0.736842 3.631579 -16.168421 28 33 25
-0.684211 3.631579 -16.168421 40 44 36
-0.631579 3.631579 -16.168421 67 65 59
-0.578947 3.631579 -16.168421 62 61 53
-0.526316 3.631579 -16.168421 67 69 52
-0.473684 3.631579 -16.168421 108 99 90
-0.422442 3.643564 -16.221783 110 98 87
-0.369637 3.643564 -16.221783 105 92 83
-0.315789 3.631579 -16.168421 84 75 68
-0.262295 3.619672 -16.115410 63 61 51
-0.210526 3.631579 -16.168421 69 71 60
-0.157377 3.619672 -16.115410 103 93 87
-0.105263 3.631579 -16.168421 84 78 68
-0.052117 3.596091 -16.010424 83 77 68
0.000000 3.561290 -15.855485 80 73 65
0.051613 3.561290 -15.855485 73 64 55
0.250000 2.875000 -12.800000 9 22 12
0.291667 2.875000 -12.800000 7 16 12
0.333333 2.875000 -12.800000 17 26 23
0.375000 2.875000 -12.800000 39 42 40
0.416667 2.875000 -12.800000 29 32 30
0.455959 2.860104 -12.733679 14 22 16
0.494845 2.845361 -12.668042 9 18 17
0.533333 2.830769 -12.603078 7 16 12
0.561404 2.766917 -12.318797 7 15 14
0.600000 2.760000 -12.288000 28 34 26
0.640000 2.760000 -12.288000 74 69 58
0.709677 2.225806 -9.909678 62 58 46
0.741935 2.225806 -9.909678 85 92 75
0.774194 2.225806 -9.909678 128 107 105
0.806452 2.225806 -9.909678 74 76 58
0.838710 2.225806 -9.909678 136 135 123
0.870968 2.225806 -9.909678 92 89 73
0.903226 2.225806 -9.909678 101 90 73
0.935484 2.225806 -9.909678 105 83 70
0.967742 2.225806 -9.909678 93 112 85
1.000000 2.225806 -9.909678 142 149 130
1.032258 2.225806 -9.909678 224 230 224
1.064516 2.225806 -9.909678 230 204 213
1.096774 2.225806 -9.909678 64 66 39
1.129032 2.225806 -9.909678 148 150 134
1.161290 2.225806 -9.909678 111 103 91
1.193548 2.225806 -9.909678 65 50 33
1.225806 2.225806 -9.909678 101 84 72
1.258065 2.225806 -9.909678 85 96 70
1.290323 2.225806 -9.909678 138 133 120
1.322581 2.225806 -9.909678 149 119 117
1.354839 2.225806 -9.909678 93 83 68
1.387097 2.225806 -9.909678 88 95 70
2.300654 3.607843 -16.062746 128 120 108
2.473684 3.631579 -16.168421 53 53 37
2.518033 3.619672 -16.115410 51 48 34
2.578947 3.631579 -16.168421 80 83 63
2.631579 3.631579 -16.168421 121 104 95
2.684211 3.631579 -16.168421 107 94 80
2.736842 3.631579 -16.168421 103 89 77
2.789474 3.631579 -16.168421 88 73 66
2.832787 3.619672 -16.115410 45 38 32
2.885246 3.619672 -16.115410 0 6 1
2.947368 3.631579 -16.168421 19 22 19
3.000000 3.631579 -16.168421 8 14 10
3.052632 3.631579 -16.168421 11 20 13
3.105263 3.631579 -16.168421 15 28 14
3.147541 3.619672 -16.115410 53 64 46
3.200000 3.619672 -16.115410 110 103 99
3.263158 3.631579 -16.168421 71 62 51
3.315789 3.631579 -16.168421 45 48 24
3.368421 3.631579 -16.168421 113 97 82
3.421053 3.631579 -16.168421 99 85 69
3.473684 3.631579 -16.168421 93 81 65
3.526316 3.631579 -16.168421 99 85 69
3.578947 3.631579 -16.168421 91 80 66
3.619672 3.619672 -16.115410 91 76 67
3.672131 3.619672 -16.115410 56 49 38
3.736842 3.631579 -16.168421 45 48 35
3.789474 3.631579 -16.168421 82 77 73
3.842105 3.631579 -16.168421 35 39 26
3.894737 3.631579 -16.168421 77 73 57
3.947368 3.631579 -16.168421 82 76 46
4.000000 3.631579 -16.168421 121 102 82
4.052631 3.631579 -16.168421 94 82 60
4.105263 3.631579 -16.168421 91 78 61
4.144262 3.619672 -16.115410 83 71 56
4.196721 3.619672 -16.115410 74 63 60
4.263158 3.631579 -16.168421 14 16 11
4.315790 3.631579 -16.168421 49 58 46
4.368421 3.631579 -16.168421 93 82 75
4.421052 3.631579 -16.168421 64 63 51
4.473684 3.631579 -16.168421 85 74 66
4.526316 3.631579 -16.168421 60 54 45
4.578948 3.631579 -16.168421 43 36 34
4.631579 3.631579 -16.168421 1 8 5
4.684210 3.631579 -16.168421 9 14 13
4.736842 3.631579 -16.168421 5 13 12
4.789474 3.631579 -16.168421 7 12 10
4.842105 3.631579 -16.168421 9 16 13
4.894737 3.631579 -16.168421 4 10 7
4.947369 3.631579 -16.168421 6 12 9
5.000000 3.631579 -16.168421 5 10 9
5.052631 3.631579 -16.168421 6 17 10
5.105263 3.631579 -16.168421 21 34 24
5.157895 3.631579 -16.168421 69 66 63
5.210526 3.631579 -16.168421 56 52 47
5.263158 3.631579 -16.168421 42 53 56
5.315790 3.631579 -16.168421 20 43 48
5.350820 3.619672 -16.115410 24 46 54
5.385621 3.607843 -16.062746 23 46 51
5.385113 3.572815 -15.906796 24 47 53
5.436893 3.572815 -15.906796 22 46 51
5.453376 3.549839 -15.804502 22 47 54
5.434921 3.504762 -15.603810 21 46 51
5.451104 3.482650 -15.505363 23 47 53
5.501577 3.482650 -15.505363 19 38 39
5.552051 3.482650 -15.505363 16 28 19
5.602524 3.482650 -15.505363 25 35 24
5.652997 3.482650 -15.505363 40 51 42
5.685534 3.471698 -15.456604 56 67 67
5.700000 3.450000 -15.360001 32 52 59
5.750000 3.450000 -15.360001 22 46 49
5.800000 3.450000 -15.360001 27 47 54
5.850000 3.450000 -15.360001 25 46 52
5.900000 3.450000 -15.360001 24 48 53
5.950000 3.450000 -15.360001 22 47 51
6.000000 3.450000 -15.360001 25 49 52
6.050000 3.450000 -15.360001 22 45 50
6.100000 3.450000 -15.360001 21 40 44
6.150000 3.450000 -15.360001 12 24 20
6.200000 3.450000 -15.360001 13 28 16
6.250000 3.450000 -15.360001 46 61 37
6.300000 3.450000 -15.360001 131 123 107
6.350000 3.450000 -15.360001 120 107 91
6.400000 3.450000 -15.360001 122 110 94
6.450000 3.450000 -15.360001 127 114 95
6.500000 3.450000 -15.360001 128 114 101
6.550000 3.450000 -15.360001 125 114 98
6.600000 3.450000 -15.360001 129 115 103
6.650000 3.450000 -15.360001 129 114 101
6.700000 3.450000 -15.360001 129 116 103
6.750000 3.450000 -15.360001 126 113 99
6.800000 3.450000 -15.360001 126 114 101
6.850000 3.450000 -15.360001 127 114 101
6.900000 3.450000 -15.360001 130 116 103
6.950000 3.450000 -15.360001 129 115 102
7.000000 3.450000 -15.360001 129 118 104
7.050000 3.450000 -15.360001 128 114 101
7.100000 3.450000 -15.360001 127 115 102
7.150000 3.450000 -15.360001 122 107 95
7.177570 3.439252 -15.312150 115 104 92
7.227414 3.439252 -15.312150 116 101 91
7.277258 3.439252 -15.312150 102 95 81
7.327103 3.439252 -15.312150 119 107 92
7.376947 3.439252 -15.312150 132 117 104
7.426791 3.439252 -15.312150 127 114 100
7.476635 3.439252 -15.312150 134 122 107
7.526480 3.439252 -15.312150 135 119 108
7.576324 3.439252 -15.312150 134 119 107
7.626168 3.439252 -15.312150 129 116 101
7.676013 3.439252 -15.312150 131 119 106
7.750000 3.450000 -15.360001 133 119 103
7.800000 3.450000 -15.360001 134 121 106
7.850000 3.450000 -15.360001 133 118 103
7.900000 3.450000 -15.360001 134 120 105
7.950000 3.450000 -15.360001 134 119 105
8.000000 3.450000 -15.360001 134 121 106
8.050000 3.450000 -15.360001 132 119 104
8.074766 3.439252 -15.312150 133 120 105
8.124611 3.439252 -15.312150 133 118 103
8.174455 3.439252 -15.312150 135 120 107
8.224299 3.439252 -15.312150 134 117 103
8.274143 3.439252 -15.312150 132 119 102
8.323988 3.439252 -15.312150 132 117 100
8.373832 3.439252 -15.312150 135 120 106
8.423676 3.439252 -15.312150 133 117 103
8.473520 3.439252 -15.312150 132 116 103
8.523364 3.439252 -15.312150 121 108 95
8.546584 3.428571 -15.264597 117 106 94
8.596273 3.428571 -15.264597 117 104 90
8.672897 3.439252 -15.312150 109 103 86
8.695652 3.428571 -15.264597 113 103 89
8.772586 3.439252 -15.312150 124 107 99
8.822430 3.439252 -15.312150 113 101 89
8.872274 3.439252 -15.312150 117 105 92
8.922118 3.439252 -15.312150 122 109 97
8.971963 3.439252 -15.312150 127 111 102
9.021807 3.439252 -15.312150 117 103 92
9.071651 3.439252 -15.312150 108 101 88
9.121495 3.439252 -15.312150 117 105 93
9.114552 3.417957 -15.217338 122 108 97
9.164086 3.417957 -15.217338 122 109 97
9.185185 3.407408 -15.170371 129 116 103
9.234568 3.407408 -15.170371 132 119 103
9.283951 3.407408 -15.170371 136 121 104
9.333333 3.407408 -15.170371 135 113 103
9.440994 3.428571 -15.264597 108 84 86
9.550000 3.450000 -15.360001 26 24 25
-1.774697 0.628538 -2.839515 8 9 11
-1.737351 0.618533 -2.794315 16 24 18
-1.723356 0.616780 -2.786395 13 20 16
-1.734940 0.624211 -2.819966 16 24 19
-1.729730 0.625647 -2.826452 14 22 18
-1.721519 0.626007 -2.828078 14 22 18
-1.716263 0.627451 -2.834602 13 22 18
-1.709007 0.628175 -2.837875 12 21 18
-1.697809 0.627451 -2.834602 15 24 23
-1.671233 0.621005 -2.805480 20 30 28
-10.076124 3.764706 -17.007612 30 39 38
-9.951890 3.738832 -16.890722 41 49 47
-9.896907 3.738832 -16.890722 56 63 57
-9.421053 3.578947 -16.168421 70 75 70
-9.070064 3.464968 -15.653503 80 83 76
-8.767802 3.368421 -15.217338 90 90 82
-11.000000 4.250000 -19.200001 97 96 89
-10.937500 4.250000 -19.200001 93 93 84
-10.875000 4.250000 -19.200001 82 83 78
-10.812500 4.250000 -19.200001 65 70 66
-10.117647 4.000000 -18.070589 79 85 83
-9.985401 3.970803 -17.938686 79 85 83
-9.679715 3.871886 -17.491816 84 89 89
-9.487720 3.817544 -17.246317 85 89 86
-9.205480 3.726027 -16.832878 91 93 92
-8.675324 3.532468 -15.958442 92 94 93
-8.326018 3.410658 -15.408151 96 96 95
-8.198758 3.378882 -15.264597 98 96 91
-8.024465 3.327217 -15.031194 97 94 89
-7.951220 3.317073 -14.985367 54 56 53
-7.854546 3.296970 -14.894547 25 35 31
-7.877676 3.327217 -15.031194 36 50 50
-7.876923 3.347692 -15.123693 88 95 97
-7.876161 3.368421 -15.217338 80 87 88
-7.850932 3.378882 -15.264597 82 91 93
-7.850000 3.400000 -15.360001 80 87 90
-7.800000 3.400000 -15.360001 88 94 97
-7.725857 3.389408 -15.312150 96 99 100
-7.652174 3.378882 -15.264597 101 105 105
-7.602485 3.378882 -15.264597 106 107 106
-7.552795 3.378882 -15.264597 113 110 106
-7.503106 3.378882 -15.264597 62 61 57
-7.476635 3.389408 -15.312150 0 0 0
-7.426791 3.389408 -15.312150 12 18 15
-7.423197 3.410658 -15.408151 4 13 11
-7.373041 3.410658 -15.408151 6 13 12
-7.345912 3.421384 -15.456604 19 27 21
-7.318612 3.432177 -15.505363 17 24 18
-7.245283 3.421384 -15.456604 30 37 30
-7.217666 3.432177 -15.505363 101 93 87
-7.167192 3.432177 -15.505363 55 51 60
-7.161905 3.453968 -15.603810 4 12 18
-7.202572 3.498392 -15.804502 12 23 31
-7.174193 3.509677 -15.855485 8 20 31
-7.145631 3.521036 -15.906796 15 30 37
-7.093851 3.521036 -15.906796 70 76 69
-7.087948 3.543974 -16.010424 119 106 100
-7.081967 3.567213 -16.115410 100 90 80
-7.029508 3.567213 -16.115410 111 99 89
-6.977049 3.567213 -16.115410 81 71 71
-6.901961 3.555556 -16.062746 8 18 28
-6.849673 3.555556 -16.062746 11 22 33
-6.797386 3.555556 -16.062746 7 19 28
-6.767213 3.567213 -16.115410 11 25 35
-6.714754 3.567213 -16.115410 41 56 50
-6.662295 3.567213 -16.115410 107 98 90
-6.588235 3.555556 -16.062746 79 76 63
-6.535948 3.555556 -16.062746 112 99 91
-6.483660 3.555556 -16.062746 88 79 76
-6.431373 3.555556 -16.062746 16 22 28
-6.379085 3.555556 -16.062746 11 23 30
-6.347541 3.567213 -16.115410 6 17 24
-6.254072 3.543974 -16.010424 11 24 37
-6.201954 3.543974 -16.010424 27 41 41
-4.282828 2.747475 -12.412122 9 18 15
-4.231738 2.740554 -12.380857 9 17 13
-4.180904 2.733668 -12.349750 10 19 16
-4.130326 2.726817 -12.318797 12 18 14
-4.090226 2.726817 -12.318797 18 23 22
-4.060301 2.733668 -12.349750 18 21 21
-4.040404 2.747475 -12.412122 6 13 12
-4.000000 2.747475 -12.412122 16 20 21
-3.959596 2.747475 -12.412122 13 20 20
-3.909320 2.740554 -12.380857 13 18 17
-3.878788 2.747475 -12.412122 13 22 19
-3.848101 2.754430 -12.443544 10 17 16
-3.807595 2.754430 -12.443544 11 17 16
-3.805627 2.782609 -12.570845 8 15 12
-4.794788 3.543974 -16.010424 10 17 16
-3.606218 2.818653 -12.733679 13 17 16
-3.564767 2.818653 -12.733679 8 15 14
-3.514212 2.811369 -12.700776 14 19 18
-3.463917 2.804124 -12.668042 12 17 18
-3.413882 2.796915 -12.635476 10 15 16
-3.372751 2.796915 -12.635476 12 19 20
-3.340206 2.804124 -12.668042 28 31 30
-3.298969 2.804124 -12.668042 19 22 25
-3.257732 2.804124 -12.668042 9 15 15
-3.216495 2.804124 -12.668042 11 17 18
-3.175258 2.804124 -12.668042 9 14 15
-3.150259 2.818653 -12.733679 9 15 14
-3.108808 2.818653 -12.733679 7 12 10
-3.067358 2.818653 -12.733679 18 25 22
-3.025907 2.818653 -12.733679 29 31 31
-2.984456 2.818653 -12.733679 8 15 11
-2.935400 2.811369 -12.700776 14 18 18
-2.894057 2.811369 -12.700776 4 13 10
-2.830769 2.789744 -12.603078 6 14 11
-2.782609 2.782609 -12.570845 7 19 14
-2.713924 2.754430 -12.443544 48 59 47
-2.666667 2.747475 -12.412122 85 91 80
-2.632911 2.754430 -12.443544 82 85 74
-2.618926 2.782609 -12.570845 85 81 70
-2.597938 2.804124 -12.668042 137 126 116
-2.569948 2.818653 -12.733679 129 117 109
-2.515464 2.804124 -12.668042 132 117 109
-2.424242 2.747475 -12.412122 126 115 104
-2.383838 2.747475 -12.412122 130 116 105
-2.349367 2.754430 -12.443544 129 118 105
-2.314721 2.761421 -12.475127 126 113 103
-2.268354 2.754430 -12.443544 114 96 94
-2.205514 2.726817 -12.318797 22 19 17
-2.160000 2.720000 -12.288000 6 12 11
-2.120000 2.720000 -12.288000 12 18 17
-2.080000 2.720000 -12.288000 11 20 17
-2.040000 2.720000 -12.288000 8 16 15
-2.000000 2.720000 -12.288000 11 19 18
-1.960000 2.720000 -12.288000 9 16 15
-1.920000 2.720000 -12.288000 10 16 16
-1.884712 2.726817 -12.318797 9 16 13
-1.849246 2.733668 -12.349750 11 18 16
-1.822785 2.754430 -12.443544 10 16 15
-1.805128 2.789744 -12.603078 10 18 17
-1.746193 2.761421 -12.475127 9 18 17
-1.705584 2.761421 -12.475127 9 17 18
-1.677749 2.782609 -12.570845 9 17 16
-1.645244 2.796915 -12.635476 27 35 29
-1.604113 2.796915 -12.635476 38 44 37
-1.562982 2.796915 -12.635476 25 28 27
-1.521851 2.796915 -12.635476 3 14 10
-1.473146 2.782609 -12.570845 14 22 22
-1.432225 2.782609 -12.570845 9 17 16
-1.391304 2.782609 -12.570845 10 18 17
-1.346939 2.775510 -12.538776 14 31 18
-1.286432 2.733668 -12.349750 121 122 108
-1.240000 2.720000 -12.288000 152 135 128
-1.200000 2.720000 -12.288000 141 130 118
-1.162907 2.726817 -12.318797 144 128 119
-1.125628 2.733668 -12.349750 145 130 120
-1.085427 2.733668 -12.349750 136 121 112
-1.047859 2.740554 -12.380857 124 111 103
-1.007557 2.740554 -12.380857 114 99 94
-0.972152 2.754430 -12.443544 42 44 31
-0.931646 2.754430 -12.443544 110 108 100
-0.902564 2.789744 -12.603078 60 53 53
-0.868217 2.811369 -12.700776 43 48 39
-0.893855 3.039106 -13.729609 113 99 97
-1.000000 3.578947 -16.168421 57 51 45
-0.950495 3.590759 -16.221783 9 18 7
-0.897690 3.590759 -16.221783 22 26 23
-0.844885 3.590759 -16.221783 15 23 18
-0.789474 3.578947 -16.168421 24 31 23
-0.736842 3.578947 -16.168421 27 35 27
-0.681967 3.567213 -16.115410 38 46 33
-0.629508 3.567213 -16.115410 68 68 60
